ply
format ascii 1.0
comment Created by Open3D
element vertex 1861
property double x
property double y
property double z
end_header
-18.1379 16.3619 0.652891
-18.0993 16.4123 0.591671
-17.9957 16.4947 0.51616
-18.1327 16.4167 0.537239
-18.0413 16.4836 0.479656
-17.9436 16.5213 0.534488
-17.8891 16.5566 0.524583
-17.9277 16.6434 0.478044
-17.9275 16.5826 0.485035
-17.9565 16.6656 0.472594
-17.9369 16.8384 0.508024
-17.9567 16.7817 0.504967
-17.8794 16.9586 0.50491
-17.9367 16.8964 0.512127
-17.775 16.9913 0.460732
-17.7525 17.0683 0.440442
-17.7454 17.2996 0.413466
-17.7577 17.2118 0.430354
-17.6506 17.589 0.314617
-17.4692 17.7024 0.194378
-17.484 17.8058 0.167654
-17.4927 17.754 0.192455
-17.4756 17.8709 0.126709
-17.4802 17.9368 0.0884087
-17.6335 18.2141 -0.0600044
-17.5502 18.0057 0.0798082
-17.6585 18.1595 0.0183372
-17.5447 18.3246 -0.263701
-17.6313 18.3671 -0.227927
-17.572 18.4079 -0.33749
-17.5106 18.4279 -0.43605
-17.4935 18.4783 -0.53579
-17.519 18.5708 -0.67134
-17.499 18.6626 -0.908615
-17.6244 18.6446 -0.678331
-17.2413 18.6035 -1.1244
-17.0069 18.5053 -1.24163
-17.1222 18.5549 -1.18136
-17.0438 18.5687 -1.39036
-17.0804 18.5645 -1.28034
-17.0772 18.6291 -1.63264
-17.1597 18.6216 -1.32067
-17.0923 18.6757 -1.82444
-16.8608 18.5862 -1.9486
-16.9735 18.6211 -1.90169
-16.9251 18.6366 -2.00373
-16.7001 18.6065 -2.12532
-16.829 18.6583 -2.11802
-16.6432 18.5773 -2.13198
-16.8755 18.7715 -2.25954
-16.8906 18.7159 -2.16176
-16.8996 18.7689 -2.21803
-16.8592 18.773 -2.31431
-16.8869 18.8245 -2.38138
-16.8865 18.8146 -2.3357
-16.923 18.8878 -2.48499
-16.9244 18.8583 -2.32603
-16.9199 18.8682 -2.39418
-16.9644 18.9278 -2.49216
-16.9873 18.9438 -2.63607
-16.9635 18.9292 -2.54688
-16.9722 18.9334 -2.68113
-16.9633 18.9224 -2.71068
-16.971 18.9216 -2.75876
-16.9874 18.9349 -2.86681
-16.9844 18.9334 -2.8045
-17.0249 18.9711 -2.94975
-17.0299 18.9592 -2.89542
-17.0319 19.0011 -3.05506
-17.0625 19.0011 -2.97371
-17.0779 19.0565 -3.17892
-17.0535 19.0313 -3.11264
-17.1149 19.0699 -3.29607
-17.1131 19.0807 -3.2611
-17.1277 19.0805 -3.37579
-17.1388 19.1042 -3.33707
-17.1281 19.0737 -3.42475
-17.1225 19.0844 -3.47684
-17.098 19.0968 -3.56816
-17.1135 19.0908 -3.51265
-17.1048 19.0482 -3.62697
-17.0692 19.082 -3.62407
-17.1143 19.0025 -3.69099
-17.0972 19.036 -3.66345
-17.0847 18.9999 -3.7346
-17.0616 18.9129 -3.81537
-17.0639 18.9794 -3.78094
-17.0303 18.9755 -3.80592
-16.987 18.9107 -3.85274
-17.0141 18.9429 -3.8289
-16.921 18.8789 -3.90001
-16.9736 18.9566 -3.84777
-16.9299 18.9389 -3.86543
-16.9126 18.928 -3.9001
-16.8848 18.9109 -3.93385
-16.8798 18.8599 -3.93146
-16.8181 18.8346 -4.02303
-16.8493 18.8533 -3.98023
-16.7573 18.8006 -4.08389
-16.7993 18.8323 -4.06761
-16.7234 18.7605 -4.048
-16.6673 18.7362 -4.04015
-16.6483 18.7392 -4.0782
-16.6977 18.7613 -4.09137
-16.7367 18.7971 -4.12805
-16.7011 18.8533 -4.28641
-16.751 18.821 -4.15867
-16.7223 18.8152 -4.20299
-16.7028 18.8827 -4.30368
-16.646 18.8952 -4.35591
-16.6781 18.8888 -4.33054
-16.5578 18.9356 -4.49951
-16.6489 18.9352 -4.34468
-16.6117 18.9634 -4.36969
-16.576 18.9676 -4.40984
-16.5433 18.9363 -4.54498
-16.5032 18.9064 -4.66904
-16.5252 18.9565 -4.5714
-16.4439 18.9392 -4.73872
-16.4635 18.9576 -4.69719
-16.3205 18.9501 -4.8457
-16.2748 18.9689 -4.9309
-16.2415 18.9084 -4.94545
-16.2296 18.9118 -4.99673
-16.1713 18.8317 -5.15493
-16.1981 18.8935 -5.13318
-16.1462 18.7837 -5.21481
-16.1097 18.7956 -5.31892
-16.0465 18.7546 -5.37384
-16.0672 18.8024 -5.36288
-15.907 18.7071 -5.48497
-15.9677 18.7557 -5.44593
-15.8706 18.654 -5.49241
-15.7612 18.6567 -5.55141
-15.8391 18.6866 -5.51861
-15.6 18.6468 -5.54687
-15.6489 18.6928 -5.56658
-15.538 18.6298 -5.50574
-15.7034 18.7898 -5.5771
-15.7121 18.7053 -5.56663
-15.7464 18.9085 -5.55905
-15.7407 18.8492 -5.57132
-15.7433 18.9753 -5.55632
-15.7364 19.0518 -5.54219
-15.7256 19.1508 -5.4654
-15.7669 19.1057 -5.49866
-15.6649 19.157 -5.44566
-15.5946 19.1706 -5.41088
-15.5533 19.1973 -5.36819
-15.5159 19.242 -5.28106
-15.5444 19.2238 -5.31782
-15.5256 19.2556 -5.22298
-15.536 19.2587 -5.15114
-15.4828 19.3199 -4.87282
-15.4143 19.3467 -4.79575
-15.2752 19.3811 -4.74244
-15.3552 19.3826 -4.69143
-15.2778 19.4205 -4.64016
-15.2396 19.4744 -4.53759
-15.1974 19.5084 -4.483
-15.0771 19.5181 -4.42585
-15.0444 19.5045 -4.35927
-14.9631 19.461 -4.201
-15.0034 19.4792 -4.25189
-14.9047 19.4632 -4.16997
-14.84 19.502 -4.10096
-14.9109 19.471 -4.10334
-14.8163 19.5549 -4.06855
-14.7922 19.6343 -4.08119
-14.8113 19.7799 -4.04655
-14.8389 19.733 -4.06014
-14.8009 19.8822 -3.83563
-14.9382 19.753 -4.00037
-14.8744 19.8028 -3.9524
-14.74 19.8959 -3.85263
-14.6998 19.9428 -3.82454
-14.6194 19.9971 -3.82983
-14.4328 20.0945 -3.87253
-14.5377 20.0992 -3.81961
-14.2711 20.1647 -3.90924
-14.1046 20.2314 -3.95965
-14.1848 20.2375 -3.92768
-14.0621 20.3105 -3.9785
-14.0422 20.5385 -3.98805
-14.0893 20.3834 -3.95896
-13.8684 20.844 -4.11386
-14.0596 20.6523 -3.98082
-14.0237 20.9416 -4.01874
-13.812 20.9167 -4.14822
-13.5567 21.0286 -4.28075
-13.7207 21.0394 -4.19558
-13.407 20.9718 -4.35482
-13.0287 21.009 -4.51124
-13.2209 21.0675 -4.43254
-13.1277 21.0372 -4.4728
-13.0011 20.9142 -4.51792
-12.9325 20.9022 -4.54002
-12.9697 20.7306 -4.5049
-12.8662 20.8205 -4.5493
-12.9639 20.5536 -4.46863
-12.9213 20.6814 -4.49905
-12.9373 20.4967 -4.45622
-12.9761 20.4404 -4.44733
-12.9208 20.406 -4.41731
-12.7956 20.5764 -4.40914
-12.8625 20.5912 -4.45356
-12.7484 20.5643 -4.37751
-12.6988 20.4242 -4.30904
-12.7069 20.5227 -4.34993
-12.6165 20.4801 -4.3565
-12.6758 20.4874 -4.33461
-12.5457 20.5518 -4.40318
-12.5764 20.5105 -4.37519
-12.3614 20.5079 -4.57705
-12.4346 20.6366 -4.51418
-12.3783 20.6 -4.56413
-12.2437 20.6855 -4.66267
-12.3046 20.7206 -4.62625
-12.1715 20.8012 -4.70484
-12.2301 20.7799 -4.67361
-12.1253 20.8322 -4.72842
-12.0196 20.9532 -4.78198
-12.1102 20.9934 -4.73207
-11.9072 21.0331 -4.83038
-11.8007 20.9862 -4.89476
-11.7723 21.0192 -4.90758
-11.6359 21.0196 -4.96096
-11.7288 21.071 -4.91918
-11.3954 21.0875 -5.00269
-11.527 21.1558 -4.96911
-11.2953 21.0752 -5.0643
-11.1847 21.1205 -5.13781
-11.0659 21.2452 -5.20535
-11.1512 21.1977 -5.14432
-11.0736 21.2895 -5.18633
-11.1023 21.4442 -5.09579
-11.1111 21.2563 -5.16339
-11.0967 21.5262 -5.06685
-11.174 21.5493 -4.98835
-11.1032 21.6869 -5.01509
-11.0946 21.6282 -5.03209
-10.8972 21.7648 -5.17006
-11.0653 21.7567 -5.04427
-10.8396 21.8272 -5.22188
-10.8353 22.0475 -5.28304
-10.8647 21.9031 -5.2208
-10.8931 22.0543 -5.25484
-10.7972 22.1012 -5.30481
-10.7314 22.1778 -5.32143
-10.85 22.1938 -5.28508
-10.5551 22.2432 -5.35348
-10.689 22.2615 -5.32459
-10.3049 22.3552 -5.38521
-9.9607 22.6764 -5.41518
-10.2781 22.5587 -5.3727
-9.67815 22.516 -5.45417
-9.69192 22.7262 -5.44894
-9.54055 22.6595 -5.46101
-9.3749 22.7311 -5.47449
-9.13699 22.7955 -5.49908
-8.95296 22.5035 -5.48208
-8.66997 22.3712 -5.48171
-8.77435 22.6059 -5.50039
-8.6813 21.9698 -5.43559
-8.68194 21.7507 -5.41104
-8.38964 21.493 -5.38744
-8.45189 21.6772 -5.41058
-8.30793 21.331 -5.36497
-8.34258 21.1076 -5.31267
-8.25333 21.1744 -5.33185
-8.20118 20.9767 -5.27443
-8.07697 21.006 -5.29347
-7.91763 20.9409 -5.30094
-7.95518 21.0291 -5.31752
-7.8612 20.8786 -5.30053
-7.44746 20.6952 -5.37463
-7.69396 21.0102 -5.37434
-7.55418 20.8045 -5.37085
-7.52931 20.5126 -5.29759
-7.38477 20.5518 -5.35069
-7.46354 20.4326 -5.28909
-7.28906 20.2175 -5.2856
-7.35225 20.317 -5.29009
-7.17762 20.04 -5.28248
-6.9649 20.1053 -5.38632
-7.02902 20.0112 -5.33251
-6.8485 20.1411 -5.45424
-6.74894 20.3791 -5.57746
-6.87181 20.5065 -5.5496
-6.45976 20.8769 -5.92963
-6.66509 20.6702 -5.72264
-6.52999 20.7745 -5.84216
-6.36421 20.9514 -6.03965
-6.31503 21.3859 -6.25253
-6.37962 21.1304 -6.09241
-6.03613 21.1436 -6.45359
-6.20501 21.4682 -6.3949
-5.77053 21.2249 -6.77673
-5.9538 21.3731 -6.62857
-5.68541 21.0622 -6.81893
-5.41305 20.6903 -7.00467
-5.44855 20.9768 -7.06671
-5.30142 20.4429 -7.03852
-5.0125 20.1084 -7.26919
-5.11433 20.3255 -7.21639
-5.05962 20.0014 -7.16575
-4.91746 20.0623 -7.38144
-4.76075 19.6987 -7.4353
-4.76849 20.0027 -7.57326
-4.76511 19.8519 -7.51742
-4.84265 19.6102 -7.2907
-4.7982 19.6526 -7.36192
-4.93152 19.5336 -7.15131
-4.97131 19.4958 -7.08249
-20.1271 14.9109 -15.3562
-20.179 14.9207 -15.1993
-20.219 14.9545 -15.1286
-20.3086 14.8889 -15.0045
-20.2716 14.9759 -15.0742
-20.3852 14.9547 -14.9435
-20.4515 15.0191 -14.8622
-20.432 15.0217 -14.9118
-20.5105 15.1263 -14.8097
-20.479 15.0731 -14.85
-20.597 15.2603 -14.6736
-20.5617 15.2147 -14.779
-20.576 15.2304 -14.7209
-20.5812 15.2076 -14.5256
-20.6126 15.2784 -14.6277
-20.6087 15.2067 -14.3914
-20.6647 15.2935 -14.3835
-20.6775 15.3384 -14.3176
-20.6849 15.3377 -14.3669
-20.6846 15.419 -14.286
-20.6866 15.5115 -14.2969
-20.6657 15.624 -14.2312
-20.7 15.5024 -14.3705
-20.6597 15.6138 -14.3008
-20.6555 15.6959 -14.2162
-20.5875 15.8979 -14.3434
-20.6209 15.8329 -14.277
-20.6216 16.2976 -14.2967
-20.5453 15.9757 -14.431
-20.8903 16.3805 -13.7793
-20.652 16.4795 -14.2586
-20.7743 16.5242 -14.0267
-21.1061 16.4587 -13.3616
-20.9838 16.6858 -13.6168
-21.2693 16.4222 -13.0356
-21.5905 16.0062 -12.3748
-21.4111 16.2444 -12.7466
-21.7155 15.8589 -12.1205
-21.9489 15.8034 -11.6538
-22.0746 15.6388 -11.4157
-22.2011 15.3838 -11.1675
-22.1726 15.6058 -11.2198
-22.1856 15.0777 -11.2067
-22.3323 14.8172 -10.9946
-22.2654 15.02 -11.0835
-22.365 14.4581 -10.9766
-22.3538 14.5278 -10.9897
-22.3898 14.2515 -10.9214
-22.4387 14.335 -10.8569
-22.3032 14.0187 -11.0524
-22.3696 14.0714 -10.9231
-22.3026 13.725 -10.9939
-22.334 13.7963 -10.9368
-22.3389 13.7116 -10.9115
-22.3625 13.5875 -10.9199
-22.3608 13.6488 -10.8827
-22.4033 13.5968 -10.8104
-22.4987 13.7008 -10.6405
-22.4136 13.6884 -10.7674
-22.5469 13.7 -10.5675
-22.556 13.8144 -10.5369
-22.5811 13.8886 -10.4895
-22.6341 13.9943 -10.3928
-22.6984 14.0123 -10.2547
-22.9145 14.1311 -9.86499
-22.7201 14.1126 -10.2348
-22.7953 14.2083 -10.1097
-23.0294 13.9943 -9.60298
-22.9884 14.1628 -9.73351
-23.0709 13.8745 -9.49598
-23.1677 13.8609 -9.33312
-23.1927 13.9235 -9.28541
-23.2628 13.907 -9.02023
-23.2752 14.0402 -9.03631
-23.2754 13.8857 -8.92741
-23.2782 13.9306 -8.83232
-23.2837 13.9212 -8.89254
-23.2987 14.0416 -8.81513
-23.306 14.2589 -8.69807
-23.321 14.234 -8.74988
-23.2693 14.3052 -8.61979
-23.2977 14.3511 -8.64158
-23.2497 14.3893 -8.56273
-23.2134 14.3641 -8.53376
-23.2242 14.6302 -8.44294
-23.2793 14.5053 -8.54789
-23.2701 14.5505 -8.51835
-23.3032 14.6852 -8.49464
-23.1779 14.6255 -8.41268
-23.1884 14.768 -8.36821
-23.198 14.6934 -8.40046
-23.1216 15.0411 -8.24511
-23.2067 14.959 -8.31727
-22.9085 14.8696 -8.21788
-23.0606 14.9505 -8.25073
-22.8038 14.9132 -8.17017
-22.7997 14.9639 -8.15895
-22.7317 14.9508 -8.12697
-22.7696 14.9959 -8.14317
-22.7064 15.0113 -8.11252
-22.7225 15.2129 -8.09153
-22.7588 15.0978 -8.12248
-22.6521 15.3085 -8.07845
-22.7068 15.2775 -8.08342
-22.5984 15.3479 -8.06834
-22.5528 15.3883 -8.05751
-22.4694 15.4606 -8.01921
-22.4363 15.5568 -8.02197
-22.3243 15.6444 -7.97072
-22.4349 15.6141 -8.03566
-22.309 15.8555 -8.02017
-22.3349 15.6962 -7.99592
-22.3405 15.8285 -8.03516
-22.2928 15.9323 -8.0041
-22.3126 15.9042 -8.02292
-22.2809 16.0353 -7.96634
-22.2887 15.9733 -7.9942
-22.303 16.1475 -7.92414
-22.3218 16.2153 -7.89169
-22.326 16.2765 -7.84192
-22.301 16.2838 -7.79733
-22.303 16.3484 -7.70455
-22.3244 16.3184 -7.802
-22.3255 16.3627 -7.76265
-22.3391 16.4337 -7.67022
-22.3563 16.4853 -7.60083
-22.4044 16.5799 -7.54324
-22.3952 16.5478 -7.57921
-22.438 16.6447 -7.51428
-22.4283 16.7027 -7.40786
-22.444 16.6832 -7.46329
-22.4304 16.7486 -7.37334
-22.4691 16.851 -7.37134
-22.4303 16.894 -7.28206
-22.4714 16.9105 -7.35488
-22.3725 16.9704 -7.22884
-22.4312 16.9529 -7.30221
-22.3773 17.0086 -7.26449
-22.3493 16.9818 -7.18946
-22.3058 17.0561 -7.21101
-22.335 17.018 -7.22037
-22.2495 17.1041 -7.12673
-22.2178 17.1882 -7.06682
-22.2255 17.1727 -7.09541
-22.2252 17.2397 -6.94987
-22.2472 17.3875 -6.7011
-22.1846 17.35 -6.88233
-22.2072 17.3554 -6.82939
-22.3051 17.3618 -6.60112
-22.4226 17.2965 -6.47588
-22.3587 17.3384 -6.52443
-22.4723 17.3522 -6.3359
-22.6194 17.3072 -6.159
-22.5204 17.3997 -6.20733
-22.7843 17.1803 -6.0538
-22.7165 17.2935 -6.00943
-22.8386 17.1065 -6.0653
-22.937 17.0259 -6.05821
-23.0721 17.0539 -6.01163
-22.9429 17.0647 -6.03525
-23.0038 17.0834 -6.01543
-23.2643 17.0443 -5.96779
-23.1619 17.1451 -5.97058
-23.2441 17.1183 -5.95678
-23.3929 17.0303 -5.9125
-23.4949 16.9016 -5.88176
-23.4065 16.9423 -5.92308
-23.5067 16.7066 -5.93225
-23.4887 16.6096 -5.9786
-23.5774 16.5025 -6.00003
-23.5605 16.381 -6.07688
-23.6052 16.395 -6.05044
-23.5269 16.3246 -6.14386
-23.6175 16.2565 -6.1678
-23.7177 16.2348 -6.15006
-23.6974 16.2895 -6.11218
-23.7654 16.1928 -6.15768
-23.8617 16.2041 -6.07218
-23.8244 16.2183 -6.1037
-23.8963 16.1036 -6.05359
-23.9391 15.9888 -5.99202
-23.925 16.1639 -5.98398
-23.9631 16.0563 -5.94062
-23.9854 16.0443 -5.89184
-24.0041 16.0341 -5.84115
-24.0135 16.0056 -5.73558
-24.016 16.0016 -5.65664
-24.0226 16.0182 -5.6059
-24.0692 15.9345 -5.42088
-24.0474 15.993 -5.48575
-24.1062 15.8808 -5.35926
-24.1539 15.8529 -5.29426
-24.2455 15.9761 -5.13815
-24.1767 15.9778 -5.26707
-24.2199 15.9309 -5.18849
-24.2432 16.0758 -5.12268
-24.2161 16.2037 -5.11948
-24.2328 16.1396 -5.12334
-24.2832 16.1285 -4.89915
-24.225 16.2331 -5.01937
-24.2782 16.2145 -4.77683
-24.3003 16.252 -4.62831
-24.2961 16.3787 -4.38178
-24.3307 16.4699 -4.03418
-24.2367 16.6167 -4.19214
-24.4902 16.2046 -3.84381
-24.399 16.348 -3.96029
-24.6299 15.8535 -3.84445
-24.5644 16.06 -3.75561
-24.6974 15.7211 -3.76866
-24.7095 15.8325 -3.51138
-24.6742 15.8476 -3.6541
-24.7667 15.7783 -3.29233
-24.6623 15.9839 -3.41131
-24.7356 15.8348 -3.34905
-24.8155 15.647 -3.25373
-24.8459 15.5758 -3.0377
-24.8132 15.6864 -3.07151
-24.8557 15.5353 -2.95802
-24.8917 15.3499 -2.87922
-24.8677 15.459 -2.8408
-24.8906 15.25 -2.66727
-24.8958 15.2861 -2.79428
-24.8821 14.9056 -2.40098
-24.8678 15.1852 -2.43417
-24.8724 15.0136 -2.36591
-24.884 14.7542 -2.43166
-24.8816 14.636 -2.4804
-24.8551 14.4207 -2.46835
-24.8666 14.5306 -2.43097
-24.8322 14.2253 -2.61292
-24.8339 14.2727 -2.51925
-24.8167 14.1501 -2.65248
-24.709 13.9817 -2.6711
-24.7893 14.103 -2.58781
-24.766 14.0599 -2.57336
-24.7364 13.9758 -2.81326
-24.7045 13.9643 -2.73726
-24.7051 13.9504 -2.78815
-24.7286 13.9618 -2.92595
-24.6754 13.8843 -2.97657
-24.6967 13.9249 -2.91676
-24.6098 13.8081 -2.97496
-24.6407 13.8437 -2.97562
-24.5913 13.7658 -2.96001
-24.5268 13.7447 -2.90534
-24.5603 13.7748 -2.93944
-24.5111 13.6707 -2.82224
-24.5164 13.5929 -2.74806
-24.5256 13.483 -2.66292
-24.521 13.5375 -2.70367
-24.5313 13.4101 -2.64356
-24.5046 13.3102 -2.60267
-24.4547 13.1805 -2.54949
-24.4983 13.2306 -2.58142
-24.4975 13.0065 -2.55624
-24.4437 12.8427 -2.53574
-24.3718 12.7802 -2.50058
-24.3907 12.8606 -2.51604
-24.242 12.8392 -2.42527
-24.1246 12.7872 -2.32659
-24.2195 12.9298 -2.42391
-24.1161 12.7006 -2.3042
-24.0933 12.554 -2.27504
-24.0212 12.4722 -2.2551
-23.8995 12.3646 -2.23968
-23.9064 12.429 -2.23558
-23.9196 12.2785 -2.26591
-23.9069 12.2072 -2.30791
-23.8628 12.0461 -2.47278
-23.8127 12.1061 -2.40642
-23.7815 12.0361 -2.47944
-23.891 11.9805 -2.53444
-23.8578 11.9966 -2.52178
-23.9207 11.9534 -2.5356
-23.9057 11.9096 -2.53671
-23.8959 11.8682 -2.48556
-23.8469 11.8755 -2.46358
-23.8582 11.9034 -2.51701
-23.8106 11.8638 -2.43393
-23.7138 11.8859 -2.38234
-23.7278 11.8959 -2.44997
-23.6382 11.911 -2.33197
-23.6545 11.9271 -2.41974
-23.5979 11.8348 -2.11987
-23.5835 11.9066 -2.27032
-23.6341 11.7984 -2.07608
-23.7098 11.7218 -2.00652
-23.6474 11.7475 -2.0078
-23.5681 11.6942 -1.95372
-23.5299 11.6427 -1.9323
-23.6494 11.5088 -1.88406
-23.5912 11.4802 -1.88469
-23.442 11.3852 -1.90087
-23.4297 11.5504 -1.92455
-23.3618 11.535 -1.93703
-23.162 11.313 -1.96324
-23.1224 11.254 -1.95349
-23.0531 11.2315 -1.95316
-23.0007 11.1158 -1.8911
-22.9801 11.2388 -1.96322
-22.8386 11.2154 -1.94475
-22.7552 11.2126 -1.92754
-22.5869 11.2875 -1.97642
-22.7171 11.2353 -1.94214
-22.4966 11.3499 -2.02696
-22.203 11.3748 -2.00315
-22.4058 11.3954 -2.058
-22.2888 11.374 -2.0175
-22.0917 11.4058 -2.01013
-21.9841 11.424 -1.99691
-22.0309 11.4462 -2.03254
-21.9059 11.4434 -1.97958
-21.9366 11.4723 -2.02355
-21.8511 11.3263 -1.82324
-21.8111 11.4035 -1.87045
-21.7324 11.473 -1.8656
-21.7977 11.5216 -1.98659
-21.7529 11.4912 -1.90906
-21.5174 11.4797 -1.61591
-21.4568 11.497 -1.57987
-21.3942 11.4979 -1.53903
-21.2753 11.473 -1.48386
-21.3254 11.5229 -1.52989
-21.2342 11.4065 -1.44101
-21.0803 11.3876 -1.43395
-21.123 11.455 -1.45519
-20.9607 11.2417 -1.38415
-20.7392 11.1826 -1.34431
-20.6244 11.1288 -1.31755
-20.5968 11.0736 -1.3092
-20.4813 10.8804 -1.34497
-20.554 11.1132 -1.33333
-20.5069 11.0275 -1.33995
-20.4478 11.034 -1.39981
-20.4578 10.9246 -1.37472
-20.4315 10.8332 -1.37274
-20.3545 10.8355 -1.44928
-20.4128 10.8651 -1.39624
-20.331 10.8637 -1.48197
-20.2949 10.9167 -1.53414
-20.2749 10.9948 -1.58123
-20.2897 10.9621 -1.5583
-20.247 11.0211 -1.60306
-20.1373 11.0804 -1.59932
-20.225 11.0512 -1.60754
-20.1839 11.0841 -1.60917
-20.1026 11.0894 -1.53738
-20.1095 11.1206 -1.58312
-20.0825 11.2154 -1.44304
-20.0851 11.168 -1.47621
-20.0751 11.2477 -1.34316
-20.05 11.2973 -1.13106
-19.986 11.4632 -0.999317
-20.0413 11.3828 -1.2272
-20.0063 11.4204 -1.0647
-19.9678 11.5787 -0.9297
-19.9634 11.5226 -1.02571
-19.9547 11.5718 -1.00156
-19.9718 11.6307 -0.906132
-20.0563 11.9334 -0.914627
-19.9961 11.7701 -0.91938
-20.0799 11.9882 -0.937152
-20.073 12.1143 -0.843226
-20.093 12.0831 -0.885575
-20.023 12.1666 -0.774446
-20.0499 12.1393 -0.806141
-20.0117 12.2544 -0.764288
-20.0422 12.2179 -0.787715
-19.9431 12.4071 -0.786314
-19.977 12.354 -0.774445
-19.8908 12.4596 -0.797414
-19.8565 12.5008 -0.813355
-19.6596 12.6919 -0.927205
-19.8268 12.5813 -0.862776
-19.4783 12.6915 -0.909378
-19.5869 12.7501 -0.967212
-19.4137 12.6253 -0.796136
-19.4262 12.6795 -0.880543
-19.4336 12.6415 -0.837889
-19.3406 12.689 -0.738099
-19.3797 12.6999 -0.848152
-19.359 12.7359 -0.835967
-19.3511 12.712 -0.800991
-19.3291 12.7711 -0.717938
-19.3421 12.7617 -0.783951
-19.3198 12.7526 -0.588941
-19.3228 12.8175 -0.624806
-19.3121 12.7105 -0.561737
-19.3043 12.7437 -0.508773
-19.2973 12.8356 -0.466838
-19.289 13.0244 -0.361744
-19.2882 12.9771 -0.413553
-19.2872 13.122 -0.209923
-19.3187 13.0831 -0.39088
-19.3062 13.1217 -0.272511
-19.2982 13.1578 -0.167556
-19.3273 13.2994 0.0626362
-19.3529 13.2679 -0.0657742
-19.3496 13.4339 0.205187
-19.3729 13.4051 0.115596
-19.2561 13.4274 0.394525
-19.3402 13.6446 0.443368
-19.3922 13.729 0.415237
-19.4346 13.8117 0.381837
-19.4387 13.9441 0.434987
-19.5214 13.9854 0.306523
-19.3304 14.0814 0.650385
-19.469 14.0174 0.407506
-19.2553 14.2657 0.805346
-19.0917 14.4693 1.08351
-19.168 14.4886 0.976413
-19.0079 14.5965 1.20864
-19.0632 14.5611 1.13428
-18.9466 14.6345 1.27897
-18.8096 14.6917 1.40212
-18.8949 14.7251 1.3327
-18.7845 14.849 1.41172
-18.8295 14.77 1.38911
-18.8046 14.9052 1.38847
-18.8345 15.0252 1.34147
-18.7686 15.1814 1.328
-18.8488 15.1203 1.3001
-18.7228 15.297 1.29853
-18.7308 15.4122 1.2313
-18.7594 15.3448 1.25658
-18.8335 15.7273 0.987057
-18.8392 15.6349 1.04326
-18.845 15.863 0.886263
-18.7202 15.9337 0.878609
-18.5294 16.0263 0.864577
-18.5979 15.9895 0.874786
-18.4982 16.0837 0.798025
-18.5012 16.1181 0.723423
-18.3779 16.2178 0.637608
-18.4663 16.1759 0.592638
-18.1566 16.3837 0.583861
-18.1927 16.3806 0.539418
-18.1203 16.4469 0.465578
-18.1669 16.4121 0.482955
-18.006 16.5172 0.47837
-18.118 16.4878 0.39951
-18.046 16.5287 0.443151
-17.9743 16.5454 0.480333
-17.9712 16.6095 0.472306
-18.0054 16.6479 0.463817
-18.1057 16.7303 0.489675
-18.0058 16.8788 0.519386
-18.1582 16.7951 0.509402
-18.0912 16.8399 0.518104
-17.936 17.1115 0.522816
-18.0775 17.1515 0.539759
-17.9894 17.1549 0.533334
-17.8582 17.1831 0.49508
-17.8714 17.3708 0.49289
-17.8883 17.3269 0.507398
-17.8825 17.4321 0.493582
-17.6804 17.6707 0.315951
-17.8511 17.5159 0.459137
-17.7379 17.7556 0.320982
-17.6825 17.8398 0.256053
-17.5378 17.869 0.164359
-17.5483 17.9499 0.121053
-17.764 18.1806 0.0751362
-17.6417 18.0307 0.120011
-17.7131 18.3423 -0.12784
-17.7954 18.2899 -0.00743408
-17.6804 18.4506 -0.284817
-17.7356 18.4168 -0.192012
-17.6282 18.4722 -0.369348
-17.5918 18.5076 -0.465404
-17.5973 18.5786 -0.581347
-17.6518 18.723 -0.836563
-17.6936 18.6332 -0.570685
-17.7325 18.7072 -0.681122
-17.5594 18.7375 -1.00196
-17.1997 18.6161 -1.22016
-17.3172 18.6647 -1.16482
-17.2793 18.675 -1.26154
-17.1788 18.6676 -1.52663
-17.3593 18.7558 -1.44702
-17.1883 18.7404 -1.86005
-17.1257 18.7192 -1.93454
-17.0159 18.6685 -1.97968
-17.0747 18.7119 -2.01472
-16.9083 18.667 -2.07774
-16.9897 18.6901 -2.05561
-16.9485 18.8115 -2.23102
-17.0436 18.7469 -2.10542
-16.911 18.8007 -2.2524
-16.9044 18.8213 -2.29604
-16.9501 18.8996 -2.40098
-16.9459 18.8432 -2.27848
-16.9817 18.8769 -2.30349
-16.9586 18.8904 -2.35016
-17.0077 18.948 -2.53581
-16.9762 18.9251 -2.43152
-17.0569 18.961 -2.50665
-17.0183 18.9605 -2.67148
-17.0017 18.9504 -2.71511
-17.0183 18.9559 -2.76432
-17.0671 18.9886 -2.9219
-17.0783 18.9816 -2.87373
-17.1302 19.0526 -3.03327
-17.1115 19.0118 -2.95479
-17.1538 19.0378 -2.97967
-17.1075 19.0559 -3.0802
-17.0942 19.0622 -3.12889
-17.1103 19.0835 -3.21292
-17.1441 19.1076 -3.28864
-17.1374 19.1114 -3.39193
-17.1769 19.1446 -3.33116
-17.1599 19.1446 -3.36585
-17.1446 19.139 -3.41147
-17.1154 19.1303 -3.49298
-17.1399 19.1543 -3.4439
-17.0996 19.122 -3.54099
-17.0603 19.1117 -3.61115
-17.0705 19.1184 -3.5852
-17.0514 19.0818 -3.65583
-17.0513 19.0559 -3.69424
-17.0264 19.0433 -3.71923
-16.9772 19.0219 -3.77214
-16.9787 18.9874 -3.82584
-16.8916 18.9824 -3.83704
-16.8738 18.9764 -3.86643
-16.8516 18.9461 -3.94655
-16.8221 18.9877 -3.90954
-16.8575 18.8962 -3.96672
-16.8041 18.8807 -4.08904
-16.8285 18.891 -4.01299
-16.7804 18.8306 -4.11533
-16.7846 18.8668 -4.14308
-16.7448 18.8759 -4.23453
-16.7639 18.8685 -4.19101
-16.7272 18.8829 -4.2701
-16.6897 18.9285 -4.31245
-16.713 18.9265 -4.29042
-16.634 18.9644 -4.34058
-16.5474 19.0163 -4.38419
-16.5822 19.0342 -4.30604
-16.5525 18.9725 -4.45796
-16.5385 19.0096 -4.42421
-16.4951 18.9787 -4.60853
-16.5226 18.9899 -4.51275
-16.4921 19.0134 -4.54764
-16.4265 18.9861 -4.72704
-16.4548 19.0152 -4.63886
-16.4276 19.0244 -4.67498
-16.3858 19.0462 -4.71448
-16.3253 18.993 -4.83592
-16.3201 19.0422 -4.81412
-16.3039 18.9948 -4.88382
-16.2583 18.9713 -4.98694
-16.2857 19.0375 -4.91138
-16.2626 19.0378 -4.95578
-16.2072 18.9331 -5.16756
-16.1895 18.8914 -5.19279
-16.1672 18.8397 -5.21757
-16.0876 18.8619 -5.34058
-16.1238 18.8577 -5.30494
-16.0246 18.7916 -5.40761
-16.0367 18.8417 -5.3861
-15.9286 18.7748 -5.47411
-15.985 18.8171 -5.43256
-15.9302 18.8314 -5.46264
-15.8675 18.7415 -5.51467
-15.7917 18.7168 -5.54538
-15.7446 18.7559 -5.56369
-15.775 18.8158 -5.55993
-15.7901 18.8699 -5.54295
-15.786 19.0011 -5.52952
-15.8422 18.8919 -5.50529
-15.7996 19.0622 -5.51216
-15.7872 19.1698 -5.44338
-15.6954 19.1808 -5.40838
-15.7516 19.1882 -5.40591
-15.6031 19.1926 -5.36667
-15.5845 19.2215 -5.29975
-15.6164 19.2076 -5.32017
-15.5988 19.2476 -5.12272
-15.6405 19.2768 -4.91802
-15.4968 19.3392 -4.74931
-15.4385 19.3698 -4.67887
-15.32 19.4436 -4.56879
-15.3327 19.4929 -4.45737
-15.185 19.5311 -4.3904
-15.2553 19.5441 -4.37125
-15.1012 19.4967 -4.27671
-15.0194 19.4701 -4.17898
-15.0557 19.4827 -4.22832
-14.9726 19.4666 -4.14514
-14.883 19.522 -4.07258
-14.9765 19.4943 -4.09792
-14.8471 19.6322 -4.05684
-14.8639 19.5806 -4.0545
-14.8985 19.7189 -4.04382
-14.9915 19.7553 -3.95477
-14.9547 19.6742 -4.04436
-15.0154 19.7146 -4.01386
-14.88 19.8415 -3.86156
-14.768 19.9291 -3.7964
-14.9125 19.8788 -3.76505
-14.7971 19.9966 -3.72722
-14.6428 20.0375 -3.79424
-14.5639 20.2292 -3.77251
-14.685 20.0946 -3.74002
-14.392 20.1415 -3.87381
-14.4664 20.2386 -3.81989
-14.3438 20.2266 -3.87423
-14.1488 20.3119 -3.93282
-14.2677 20.3381 -3.88772
-14.115 20.4757 -3.94523
-14.1668 20.8322 -3.92762
-14.1886 20.6833 -3.90979
-13.9526 20.9984 -4.06264
-14.1461 20.9491 -3.94524
-13.8741 21.1187 -4.10416
-13.6507 21.1515 -4.22472
-13.7756 21.2006 -4.15358
-13.3991 21.1091 -4.35054
-13.0781 21.206 -4.48195
-13.2664 21.1557 -4.40608
-12.9211 21.1092 -4.55221
-12.9803 21.157 -4.52576
-12.9231 21.0263 -4.55173
-12.8428 20.8897 -4.56367
-12.9089 20.9591 -4.55314
-12.8395 20.9834 -4.57579
-12.8642 20.7546 -4.5311
-12.8183 20.8491 -4.55778
-12.8684 20.6923 -4.50912
-12.9179 20.5936 -4.47773
-12.8803 20.637 -4.48442
-12.8008 20.6447 -4.45843
-12.6356 20.6016 -4.38077
-12.7485 20.6738 -4.45349
-12.6952 20.6015 -4.38576
-12.6022 20.5626 -4.369
-12.5268 20.6028 -4.42648
-12.4 20.6849 -4.549
-12.4703 20.6956 -4.49318
-12.3508 20.7602 -4.59096
-12.2053 20.8596 -4.68449
-12.0716 21.0641 -4.7434
-12.2202 21.0062 -4.66028
-12.1713 21.0967 -4.6819
-11.9414 21.1191 -4.79641
-11.8631 21.1825 -4.81739
-11.6246 21.1218 -4.94973
-11.7407 21.1528 -4.89054
-11.6717 21.2059 -4.9077
-11.3748 21.1656 -4.99522
-11.5907 21.2354 -4.93571
-11.4518 21.3115 -4.95983
-11.466 21.2132 -4.97295
-11.3157 21.2015 -5.00812
-11.2542 21.1915 -5.04759
-11.2252 21.2207 -5.05959
-11.1844 21.3274 -5.061
-11.2201 21.4005 -5.00191
-11.1605 21.6281 -4.98034
-11.2766 21.5467 -4.93136
-11.2876 21.6091 -4.90957
-11.2194 21.6129 -4.94709
-11.1839 21.6745 -4.95592
-10.9778 21.8267 -5.11329
-11.1913 21.7433 -4.9544
-11.1691 21.8012 -4.97623
-11.0416 21.8224 -5.06692
-10.9499 21.8859 -5.15035
-10.9478 21.9404 -5.17181
-10.9486 22.0929 -5.23314
-10.8658 22.1135 -5.27859
-10.9074 22.1639 -5.26333
-10.8017 22.2873 -5.29151
-10.9753 22.2364 -5.23225
-10.8707 22.259 -5.27181
-10.6142 22.3394 -5.33273
-10.7237 22.3723 -5.30286
-10.4372 22.5338 -5.34621
-10.1891 22.7852 -5.36707
-9.84039 22.7858 -5.42839
-9.90275 22.9632 -5.40915
-9.54679 22.8141 -5.45995
-9.66389 22.9534 -5.44674
-9.18021 23.0134 -5.50773
-9.00069 22.9493 -5.51584
-8.54275 22.5642 -5.51455
-8.78861 22.865 -5.52611
-8.64922 22.6946 -5.52268
-8.5148 22.2221 -5.47277
-8.50922 21.8464 -5.42931
-8.33915 21.7977 -5.43771
-8.12961 21.4231 -5.40006
-8.10145 21.2432 -5.3607
-7.8435 21.0222 -5.33754
-7.86696 21.4032 -5.43777
-7.81869 21.289 -5.41816
-7.75735 21.0941 -5.37626
-7.39757 20.8515 -5.42909
-7.62614 21.1068 -5.41779
-7.31898 20.732 -5.42583
-7.20347 20.5299 -5.40286
-7.21878 20.2855 -5.32807
-7.13419 20.4149 -5.39379
-7.05529 20.4986 -5.45349
-6.97736 20.6117 -5.52607
-6.81994 20.6239 -5.61525
-6.66666 20.8348 -5.7676
-6.78717 20.7557 -5.67738
-6.56432 20.9318 -5.86531
-6.50545 21.2116 -6.01409
-6.42375 21.4317 -6.16589
-6.49144 21.3677 -6.08218
-6.37332 21.5458 -6.25531
-6.1198 21.5701 -6.52262
-5.86518 21.5069 -6.77103
-5.70549 21.3521 -6.89119
-5.78355 21.6146 -6.89447
-5.19549 20.8671 -7.32629
-5.41436 21.3131 -7.21812
-5.17666 21.0205 -7.40801
-5.1061 20.5082 -7.29427
-4.96315 20.3762 -7.41873
-4.94787 20.2455 -7.39623
-4.83627 20.1072 -7.50536
-4.67224 19.8259 -7.65404
-4.70358 19.998 -7.67649
-4.72925 19.7453 -7.50865
-20.1611 15.1179 -15.307
-20.1803 15.0221 -15.2182
-20.2172 15.0477 -15.1483
-20.4053 15.0249 -14.9578
-20.2781 15.0621 -15.0837
-20.4506 15.1152 -14.9415
-20.4816 15.1226 -14.8973
-20.5054 15.13 -14.8494
-20.5508 15.2177 -14.837
-20.5792 15.2655 -14.7612
-20.5663 15.2552 -14.8127
-20.6182 15.3046 -14.6911
-20.6024 15.2788 -14.7117
-20.6416 15.3191 -14.6259
-20.6757 15.3167 -14.4313
-20.6692 15.3226 -14.5048
-20.6982 15.3963 -14.3602
-20.7014 15.3732 -14.422
-20.7151 15.4155 -14.4395
-20.7104 15.4596 -14.3976
-20.6855 15.5516 -14.4013
-20.7128 15.4655 -14.468
-20.7021 15.5056 -14.4343
-20.64 15.686 -14.2965
-20.6651 15.5985 -14.3669
-20.6384 15.6539 -14.3662
-20.6265 15.7476 -14.273
-20.5742 15.8415 -14.3708
-20.5424 15.893 -14.436
-20.5094 16.0619 -14.5078
-20.4374 15.9153 -14.6467
-20.5559 16.4253 -14.4491
-20.6872 16.767 -14.2146
-20.5955 16.9037 -14.4092
-20.8023 16.888 -14.0019
-21.1598 16.6616 -13.2719
-20.9463 17.0921 -13.7319
-21.0633 17.0207 -13.4951
-21.3844 16.6114 -12.8327
-21.5194 16.3979 -12.5528
-21.8367 15.926 -11.8857
-21.7953 16.1037 -11.9876
-22.0873 15.8296 -11.3937
-21.959 16.0502 -11.655
-22.0968 16.0802 -11.3846
-22.248 15.5793 -11.0757
-22.264 15.8251 -11.044
-22.323 15.812 -10.9286
-22.2575 15.4541 -11.0647
-22.3996 15.1102 -10.8672
-22.3064 15.4265 -10.9849
-22.3668 14.6239 -10.961
-22.4337 14.9196 -10.8193
-22.4865 14.6372 -10.7568
-22.4438 14.4932 -10.8496
-22.4825 14.4559 -10.7892
-22.492 14.2711 -10.7635
-22.5213 14.3904 -10.7286
-22.4403 14.097 -10.8032
-22.3719 13.7137 -10.8443
-22.4455 13.8162 -10.7246
-22.4375 13.7395 -10.7288
-22.5373 13.8894 -10.5776
-22.6182 14.136 -10.4707
-22.6678 14.1168 -10.3503
-22.7613 14.2065 -10.1787
-22.8406 14.3144 -10.066
-22.7895 14.3172 -10.167
-22.9535 14.2566 -9.84445
-23.0739 14.0946 -9.55596
-23.0617 14.2328 -9.62353
-23.1016 13.9761 -9.46977
-23.1652 13.9897 -9.36611
-23.1977 14.0585 -9.31267
-23.2947 14.0245 -8.95024
-23.2847 14.1812 -9.07187
-23.2899 14.0516 -8.98908
-23.2914 13.9724 -8.91959
-23.3107 14.0797 -8.85413
-23.3297 14.2202 -8.79723
-23.3458 14.3951 -8.71284
-23.3372 14.2842 -8.77116
-23.3277 14.4073 -8.66426
-23.2995 14.4221 -8.61452
-23.3291 14.5357 -8.60356
-23.3234 14.6515 -8.53511
-23.2854 14.725 -8.45959
-23.3451 14.721 -8.52733
-23.3237 14.746 -8.48929
-23.244 14.8214 -8.3881
-23.2461 14.7468 -8.41662
-23.1784 15.0347 -8.2752
-23.2673 14.9794 -8.35164
-23.2702 15.1033 -8.31319
-23.063 15.0721 -8.2127
-23.1867 15.1817 -8.2297
-23.1358 15.1929 -8.19952
-23.0639 15.1542 -8.18479
-22.9076 14.9531 -8.19807
-22.8399 15.006 -8.16487
-22.7905 15.1311 -8.12168
-22.7631 15.2617 -8.08905
-22.6881 15.354 -8.08303
-22.7381 15.3074 -8.08175
-22.6382 15.3882 -8.08192
-22.584 15.4959 -8.08406
-22.5144 15.4872 -8.05067
-22.5509 15.5127 -8.07489
-22.4725 15.5853 -8.05231
-22.4269 15.7576 -8.06777
-22.4825 15.6495 -8.07196
-22.4894 15.7025 -8.0844
-22.3617 15.773 -8.0348
-22.3879 15.9129 -8.06128
-22.3987 15.7995 -8.0637
-22.3416 15.9328 -8.03881
-22.3249 15.978 -8.01901
-22.3174 16.017 -7.99954
-22.3311 16.0632 -7.98677
-22.3605 16.1415 -7.95759
-22.3483 16.1015 -7.97655
-22.3532 16.2576 -7.87706
-22.37 16.3013 -7.8509
-22.375 16.3374 -7.82138
-22.3331 16.3984 -7.71621
-22.3919 16.3642 -7.80523
-22.3744 16.3987 -7.76705
-22.3782 16.4357 -7.72615
-22.3997 16.5279 -7.62362
-22.3907 16.4739 -7.6899
-22.4389 16.5877 -7.5835
-22.4371 16.5618 -7.61541
-22.4348 16.618 -7.54673
-22.4674 16.6756 -7.5128
-22.4646 16.7121 -7.46199
-22.4866 16.6988 -7.50703
-22.4771 16.7788 -7.4314
-22.4958 16.8956 -7.38456
-22.4577 16.9325 -7.33278
-22.4922 16.9573 -7.3628
-22.4232 16.9959 -7.30232
-22.4666 16.9869 -7.33524
-22.4633 17.0233 -7.33259
-22.3478 17.0433 -7.25184
-22.3891 17.0829 -7.28731
-22.2629 17.1074 -7.17224
-22.3147 17.1002 -7.23724
-22.2863 17.0913 -7.20117
-22.242 17.137 -7.16055
-22.1884 17.2381 -7.11207
-22.229 17.1754 -7.15224
-22.1682 17.2983 -7.01117
-22.1748 17.3333 -6.92896
-22.1733 17.4002 -6.85128
-22.164 17.3622 -6.92465
-22.2336 17.4227 -6.68228
-22.1832 17.4377 -6.76287
-22.2542 17.4219 -6.63407
-22.3892 17.3873 -6.40647
-22.2739 17.4819 -6.47145
-22.3185 17.473 -6.4018
-22.4277 17.4506 -6.2782
-22.6439 17.3798 -5.99807
-22.4861 17.471 -6.15147
-22.6909 17.34 -5.98132
-22.7748 17.2639 -5.9823
-22.7452 17.332 -5.93315
-22.8045 17.2123 -6.00492
-22.8486 17.1523 -6.02581
-22.964 17.1388 -6.00411
-23.18 17.2014 -5.9502
-23.1119 17.1841 -5.96669
-23.327 17.089 -5.93018
-23.2509 17.17 -5.93946
-23.4844 16.9774 -5.86821
-23.3849 17.1067 -5.8862
-23.6094 16.8088 -5.84658
-23.6555 16.8387 -5.79815
-23.6153 16.7054 -5.88868
-23.6206 16.5185 -5.97862
-23.6241 16.3298 -6.09791
-23.7386 16.4265 -6.00005
-23.7027 16.3563 -6.05626
-23.7574 16.327 -6.06152
-23.7933 16.2219 -6.1231
-23.8568 16.2593 -6.05246
-23.9158 16.2242 -5.97724
-23.9552 16.1404 -5.93083
-23.9407 16.2004 -5.93562
-23.9821 16.1168 -5.8736
-24.0031 16.0922 -5.82312
-24.0134 16.0474 -5.78669
-24.0281 16.0629 -5.67584
-24.0478 16.0402 -5.51688
-24.0442 16.124 -5.58531
-24.0857 16.054 -5.43576
-24.1259 16.0594 -5.36085
-24.1854 16.0497 -5.25127
-24.2187 16.0666 -5.18392
-24.1864 16.2461 -5.17104
-24.2069 16.136 -5.18814
-24.1813 16.2076 -5.21443
-24.1805 16.3096 -5.09528
-24.1915 16.3275 -4.99112
-24.1881 16.4351 -4.7892
-24.1687 16.4157 -4.90703
-24.2295 16.4467 -4.58278
-24.1881 16.66 -4.33701
-24.2539 16.657 -4.00726
-24.0982 16.9168 -4.22629
-24.1042 16.9428 -4.11935
-24.3437 16.5824 -3.7544
-24.417 16.433 -3.70828
-24.4911 16.277 -3.67417
-24.5169 16.2986 -3.43586
-24.6032 16.1398 -3.34997
-24.6589 16.0602 -3.20966
-24.77 15.8042 -3.13199
-24.7245 15.9062 -3.19519
-24.8172 15.669 -2.9486
-24.7784 15.7883 -2.9907
-24.834 15.5825 -2.81067
-24.8793 15.3647 -2.74987
-24.8529 15.4694 -2.70785
-24.8448 15.3458 -2.412
-24.8576 15.3688 -2.54807
-24.8514 15.1907 -2.33635
-24.8672 14.8739 -2.3088
-24.8526 15.085 -2.29118
-24.843 14.9692 -2.21266
-24.8726 14.7737 -2.34232
-24.8727 14.6505 -2.38379
-24.8484 14.4474 -2.37429
-24.8569 14.5308 -2.35474
-24.8344 14.3119 -2.45188
-24.8215 14.2248 -2.51838
-24.8198 14.2487 -2.46097
-24.8095 14.15 -2.5947
-24.7702 14.086 -2.52229
-24.7391 14.0436 -2.51594
-24.6552 13.9719 -2.58933
-24.6994 13.9959 -2.57293
-24.6513 13.9467 -2.70295
-24.6676 13.9125 -2.87452
-24.6219 13.8956 -2.85888
-24.6526 13.8873 -2.93703
-24.6253 13.8836 -2.90478
-24.6072 13.8592 -2.93333
-24.5749 13.8145 -2.9443
-24.517 13.798 -2.90966
-24.4429 13.7511 -2.85823
-24.4847 13.7599 -2.88937
-24.4923 13.6504 -2.78938
-24.4235 13.6137 -2.72404
-24.4822 13.5184 -2.67033
-24.4309 13.5557 -2.67861
-24.4418 13.4292 -2.6111
-24.4399 13.4889 -2.64174
-24.491 13.3733 -2.61341
-24.4493 13.2298 -2.55817
-24.4468 13.2875 -2.57259
-24.3829 13.0887 -2.5126
-24.4088 13.2252 -2.54296
-24.3388 13.1407 -2.50205
-24.3725 12.9735 -2.50601
-24.2906 12.9242 -2.46715
-24.1366 12.8599 -2.35745
-24.2689 13.0025 -2.46338
-24.1631 12.9733 -2.41273
-24.1606 12.9208 -2.39064
-24.0866 12.7454 -2.29794
-24.0506 12.6455 -2.26897
-23.9977 12.5743 -2.2516
-23.9197 12.5571 -2.23998
-23.8547 12.4067 -2.22883
-23.7979 12.3188 -2.2384
-23.8604 12.2659 -2.26355
-23.8277 12.2063 -2.30824
-23.7503 12.0519 -2.4609
-23.7606 12.1244 -2.38752
-23.8103 11.9582 -2.53558
-23.7378 11.9902 -2.49536
-23.7747 11.9817 -2.51157
-23.8501 11.9453 -2.54785
-23.8842 11.9406 -2.54666
-23.8127 11.9015 -2.50463
-23.7738 11.8869 -2.46978
-23.6946 11.909 -2.43978
-23.7023 11.9428 -2.4948
-23.628 11.9451 -2.41962
-23.6654 11.9653 -2.48555
-23.5905 11.93 -2.35327
-23.5285 11.8689 -2.14203
-23.5001 11.9381 -2.3035
-23.5264 11.9126 -2.24583
-23.5994 11.7937 -2.04842
-23.5766 11.7525 -1.99593
-23.4599 11.6677 -1.94682
-23.5163 11.7267 -1.9721
-23.4813 11.6008 -1.92496
-23.3323 11.6014 -1.94922
-23.4073 11.6098 -1.93683
-23.3443 11.4376 -1.93107
-23.2652 11.5159 -1.9596
-23.0979 11.3563 -1.98979
-23.0419 11.2989 -1.98408
-22.9209 11.2737 -1.98322
-22.7392 11.2931 -1.99681
-22.6015 11.3628 -2.0528
-22.3702 11.4249 -2.07812
-22.5682 11.3963 -2.07841
-22.5247 11.4259 -2.099
-22.25 11.4149 -2.04867
-22.1569 11.4035 -2.02189
-22.1514 11.464 -2.07323
-21.9851 11.4893 -2.05686
-22.0642 11.5272 -2.10237
-21.884 11.4904 -2.01426
-21.9393 11.5242 -2.07015
-21.8839 11.5285 -2.0501
-21.8372 11.4624 -1.95703
-21.7531 11.6333 -2.06573
-21.8122 11.5807 -2.05827
-21.6373 11.6582 -1.9719
-21.6967 11.6278 -2.00425
-21.5382 11.5543 -1.71943
-21.5476 11.6312 -1.82295
-21.4758 11.5368 -1.63088
-21.4318 11.5522 -1.60943
-21.3294 11.5804 -1.57078
-21.3586 11.5729 -1.58009
-21.1782 11.5803 -1.51995
-21.2616 11.5813 -1.54633
-21.1758 11.4912 -1.47291
-21.0575 11.4585 -1.4504
-21.0849 11.5292 -1.4774
-20.894 11.3437 -1.41145
-20.8215 11.2521 -1.37819
-20.6967 11.248 -1.36508
-20.614 11.1794 -1.3354
-20.4961 11.1274 -1.36714
-20.5493 11.1737 -1.35238
-20.4064 10.9372 -1.42999
-20.4784 11.1916 -1.39379
-20.3968 11.0751 -1.46145
-20.4089 10.9972 -1.43668
-20.3646 10.9175 -1.47082
-20.3358 10.9505 -1.51258
-20.2775 11.0619 -1.58794
-20.3049 11.0277 -1.56197
-20.2385 11.0856 -1.60339
-20.1603 11.1223 -1.63075
-20.1181 11.1546 -1.61673
-20.0977 11.1497 -1.56294
-20.0924 11.1879 -1.56225
-20.0762 11.3162 -1.50596
-20.0803 11.2792 -1.55378
-20.0747 11.3177 -1.44341
-20.0591 11.3159 -1.23466
-20.0669 11.3118 -1.31127
-20.0113 11.4491 -1.20936
-20.0572 11.3681 -1.33218
-20.0334 11.4305 -1.29903
-19.9501 11.5462 -1.11329
-19.9419 11.6141 -1.03661
-19.9596 11.6254 -0.964806
-19.9725 11.6896 -0.945004
-20.0246 11.8598 -0.963347
-19.9816 11.7685 -0.985881
-20.0058 11.831 -0.994656
-20.0647 11.9478 -0.985557
-20.1058 12.0315 -0.970064
-20.0976 12.0057 -1.00996
-20.1361 12.1691 -0.90158
-20.143 12.0946 -0.971882
-20.158 12.1539 -0.947141
-20.0694 12.1906 -0.817472
-20.0749 12.316 -0.823654
-20.0906 12.2328 -0.832351
-20.0627 12.3957 -0.822493
-19.9974 12.3965 -0.797616
-19.9836 12.5126 -0.846447
-20.0209 12.4831 -0.843755
-19.9003 12.5535 -0.85332
-19.9066 12.7414 -0.961296
-19.9221 12.6266 -0.895145
-19.7387 12.8777 -1.05789
-19.822 12.8613 -1.04259
-19.4565 12.7726 -0.986794
-19.5676 12.8114 -1.02078
-19.4635 12.7934 -1.0074
-19.4257 12.7185 -0.922759
-19.3558 12.7853 -0.873863
-19.389 12.7532 -0.916872
-19.3314 12.81 -0.749545
-19.329 12.8672 -0.709943
-19.3144 12.9033 -0.574406
-19.3057 12.9299 -0.518364
-19.3082 13.0094 -0.475559
-19.3126 12.9834 -0.518852
-19.3375 13.1718 -0.245208
-19.3263 13.0452 -0.496769
-19.3655 13.1061 -0.464654
-19.3732 13.2164 -0.231237
-19.3975 13.363 -0.0046051
-19.4076 13.2735 -0.188995
-19.4363 13.4818 0.0722368
-19.4785 13.4097 -0.122662
-19.3641 13.5199 0.274111
-19.3754 13.606 0.344492
-19.4643 13.7703 0.29477
-19.4211 13.7027 0.335313
-19.5092 13.8579 0.259731
-19.5252 14.0908 0.333941
-19.5976 14.0283 0.186744
-19.5619 14.0556 0.262299
-19.4125 14.2583 0.553447
-19.2416 14.4885 0.861445
-19.3332 14.3808 0.701259
-19.1416 14.5934 1.02639
-19.2169 14.578 0.907755
-19.0465 14.6667 1.16465
-19.0948 14.6587 1.09872
-18.9939 14.7291 1.23077
-18.9413 14.8021 1.28668
-18.8776 14.8787 1.33898
-18.8469 14.9496 1.34965
-18.8984 15.0433 1.28574
-18.9069 14.9614 1.2992
-18.8427 15.2117 1.26866
-18.899 15.2103 1.23128
-18.8174 15.2877 1.25244
-18.8211 15.3533 1.2199
-18.8011 15.407 1.20044
-18.9187 15.7738 0.919203
-18.933 15.5846 1.02902
-18.9812 15.6784 0.94956
-18.8822 15.8871 0.85012
-18.951 15.8473 0.849955
-18.6594 15.9907 0.844196
-18.5851 16.0324 0.826477
-18.6373 16.0461 0.771721
-18.5291 16.131 0.630073
-18.5856 16.0869 0.706405
-18.3466 16.2833 0.517333
-18.4963 16.1754 0.507844
-18.3706 16.301 0.383576
-18.2956 16.332 0.482654
-18.2643 16.363 0.439371
-18.1521 16.4433 0.423662
-18.2298 16.3968 0.381388
-18.0792 16.532 0.410746
-18.1555 16.4688 0.376098
-18.158 16.5182 0.362618
-18.0055 16.5843 0.46346
-18.0477 16.6008 0.439987
-18.0822 16.6565 0.456028
-18.2135 16.8138 0.511112
-18.143 16.6853 0.463246
-18.2584 16.9041 0.524649
-18.1293 16.9072 0.525154
-18.0213 17.2741 0.548428
-18.3686 17.1774 0.547599
-18.2626 17.2865 0.56043
-17.9089 17.2477 0.517171
-17.9967 17.3411 0.552089
-17.935 17.3779 0.531496
-17.922 17.5218 0.505402
-17.9374 17.4559 0.526561
-17.8324 17.6435 0.41675
-17.8124 17.7097 0.38239
-17.8697 17.7854 0.384855
-17.7306 17.8965 0.253408
-17.9236 17.8825 0.367261
-17.6205 17.9431 0.167729
-17.781 17.9634 0.243968
-17.7129 17.9987 0.184674
-17.8436 18.1589 0.141601
-17.7752 18.0779 0.164425
-17.8627 18.2436 0.0801458
-17.8097 18.4019 -0.116729
-17.9097 18.3258 0.0290054
-17.8512 18.3655 -0.0471348
-17.8033 18.4914 -0.232029
-17.8437 18.4588 -0.159023
-17.7477 18.5148 -0.315218
-17.6957 18.5378 -0.401994
-17.662 18.5656 -0.483768
-17.8158 18.6749 -0.523055
-17.769 18.6102 -0.451262
-17.8052 18.7873 -0.788608
-17.8571 18.7547 -0.646332
-17.7175 18.8001 -0.953913
-17.5143 18.7691 -1.14552
-17.6693 18.8721 -1.21806
-17.5798 18.8233 -1.19931
-17.3912 18.7218 -1.20566
-17.4423 18.7891 -1.36052
-17.4716 18.7805 -1.24798
-17.4324 18.8382 -1.65805
-17.5321 18.8486 -1.39259
-17.3172 18.7749 -1.66812
-17.2682 18.7994 -1.93928
-17.1478 18.7491 -2.01001
-17.1099 18.7614 -2.08488
-17.0089 18.8244 -2.21139
-17.0887 18.7916 -2.1399
-16.998 18.8521 -2.25264
-17.0205 18.9072 -2.33213
-17.0421 18.8862 -2.28487
-16.9969 18.9221 -2.38206
-17.0405 18.9412 -2.41452
-17.0575 18.9668 -2.56347
-17.0873 18.9573 -2.4588
-17.0457 18.9667 -2.71753
-17.0675 18.9704 -2.64855
-17.1311 19.0009 -2.90494
-17.1571 18.9912 -2.85721
-17.162 19.0202 -2.93889
-17.2127 19.0999 -3.07632
-17.2583 19.0705 -2.98993
-17.1722 19.1063 -3.17006
-17.1627 19.1122 -3.20994
-17.1476 19.1099 -3.2593
-17.2091 19.1697 -3.35312
-17.2075 19.1368 -3.22806
-17.2343 19.1696 -3.3023
-17.1813 19.1718 -3.40141
-17.1241 19.1968 -3.48032
-17.1657 19.1936 -3.44799
-17.0989 19.1724 -3.51501
-17.0373 19.1393 -3.61355
-17.0623 19.183 -3.54788
-17.0181 19.1185 -3.6459
-16.9784 19.0643 -3.71699
-16.9108 19.0063 -3.80852
-16.8541 19.0147 -3.81242
-16.8279 19.0079 -3.85685
-16.818 18.9722 -3.96441
-16.789 19.0225 -3.88019
-16.7905 19.0033 -3.93508
-16.8254 18.9348 -3.99289
-16.806 18.9206 -4.05422
-16.798 18.9627 -4.0205
-16.7918 18.9139 -4.11635
-16.7777 18.9137 -4.16508
-16.7619 18.9143 -4.20205
-16.7259 18.9301 -4.26176
-16.7374 18.9521 -4.22427
-16.6988 18.9479 -4.28912
-16.6985 18.98 -4.25026
-16.6625 19.0149 -4.24973
-16.5515 19.0385 -4.33828
-16.6347 19.0436 -4.20849
-16.5701 19.0751 -4.19799
-16.5151 19.0384 -4.39988
-16.5105 19.0255 -4.4686
-16.4613 19.0661 -4.45764
-16.4674 19.0262 -4.58439
-16.4747 19.0474 -4.50836
-16.4267 19.0596 -4.59768
-16.4002 19.0616 -4.64816
-16.3492 19.0626 -4.74589
-16.3629 19.0817 -4.67082
-16.2998 19.0479 -4.85828
-16.2795 19.0984 -4.81073
-16.2452 19.0922 -4.92287
-16.266 19.0867 -4.88124
-16.2355 19.0003 -5.068
-16.2334 19.0816 -4.97675
-16.188 18.9519 -5.20774
-16.2112 18.987 -5.15489
-16.1506 18.8591 -5.25762
-16.0415 18.9099 -5.35226
-16.1585 18.9684 -5.2566
-16.1389 18.9367 -5.2872
-16.0792 18.9916 -5.31509
-15.9434 18.8887 -5.42614
-15.8834 18.7987 -5.50169
-15.886 18.8469 -5.49053
-15.8846 18.9004 -5.46701
-15.8212 18.7724 -5.54085
-15.8381 19.0473 -5.48494
-15.827 19.1121 -5.46755
-15.8353 19.1712 -5.42432
-15.7131 19.2054 -5.34937
-15.838 19.2006 -5.35382
-15.8277 19.221 -5.29046
-15.6292 19.2188 -5.25172
-15.6982 19.2473 -5.01488
-15.6561 19.2231 -5.18811
-15.7013 19.2755 -4.81895
-15.7641 19.2522 -4.89332
-15.5758 19.333 -4.69675
-15.6496 19.3051 -4.72592
-15.4291 19.4548 -4.49334
-15.5327 19.3709 -4.61788
-15.3504 19.5136 -4.39716
-15.1052 19.5104 -4.22822
-15.3252 19.5829 -4.22501
-15.2385 19.5745 -4.24409
-15.0314 19.5015 -4.13359
-15.0806 19.5071 -4.17639
-14.9367 19.5352 -4.07165
-15.0243 19.529 -4.10046
-15.0534 19.5752 -4.0879
-14.9952 19.5457 -4.07953
-14.9281 19.5902 -4.056
-15.0078 19.6451 -4.0531
-15.0667 19.7304 -3.94939
-15.0742 19.6814 -4.03612
-15.0286 19.7781 -3.87014
-14.9814 19.8725 -3.72111
-14.8595 19.9399 -3.73507
-14.9176 19.9304 -3.70397
-14.779 20.0537 -3.70266
-14.8556 19.9995 -3.68513
-14.6357 20.2432 -3.72916
-14.7732 20.1118 -3.6738
-14.7227 20.1683 -3.68988
-14.5436 20.3687 -3.76728
-14.41 20.3974 -3.82731
-14.1897 20.4104 -3.91356
-14.3653 20.5646 -3.83835
-14.2845 20.8994 -3.87061
-14.3074 20.7275 -3.85714
-14.1278 21.048 -3.95631
-14.2727 21.0261 -3.87935
-14.0203 21.3455 -3.99452
-14.0324 21.1838 -4.00472
-13.604 21.3233 -4.22512
-13.7513 21.3802 -4.1391
-13.5048 21.1963 -4.29046
-13.3373 21.2481 -4.36161
-13.0963 21.3132 -4.46187
-13.0022 21.257 -4.50781
-12.8638 21.2443 -4.56234
-12.8353 21.0644 -4.58216
-12.8591 21.1481 -4.57155
-12.7841 20.9332 -4.5711
-12.7999 21.1084 -4.59069
-12.7555 21.0293 -4.58195
-12.7969 20.7675 -4.52555
-12.749 20.8475 -4.54284
-12.7538 20.7574 -4.50688
-12.6923 20.7247 -4.46782
-12.659 20.634 -4.397
-12.6202 20.6582 -4.41011
-12.5755 20.6136 -4.39786
-12.5658 20.692 -4.43782
-12.4062 20.7813 -4.54917
-12.5171 20.7241 -4.47362
-12.4545 20.7601 -4.51476
-12.3255 20.9128 -4.59584
-12.2709 21.0937 -4.62787
-12.0449 21.1571 -4.74053
-12.2782 21.1749 -4.6265
-12.2181 21.3025 -4.65711
-11.9791 21.2273 -4.75843
-11.7657 21.25 -4.84303
-11.808 21.3289 -4.80586
-11.5334 21.3131 -4.93365
-11.6061 21.3727 -4.87702
-11.4014 21.3384 -4.96518
-11.4229 21.458 -4.91464
-11.3122 21.3069 -4.9869
-11.266 21.2623 -5.0158
-11.2558 21.338 -5.00012
-11.2841 21.4063 -4.97675
-11.3894 21.5761 -4.87513
-11.2453 21.6912 -4.91667
-11.3364 21.6335 -4.88144
-11.3048 21.6698 -4.88794
-11.2418 21.7763 -4.92309
-11.0193 21.8873 -5.10026
-11.1573 21.8668 -5.00422
-11.0893 21.8876 -5.05449
-11.1018 22.0668 -5.13638
-11.028 21.96 -5.12676
-11.0809 22.1307 -5.17513
-11.0444 22.2002 -5.20436
-11.1455 22.3222 -5.15371
-11.1113 22.2383 -5.1746
-10.8501 22.3958 -5.26193
-10.9724 22.3354 -5.22355
-10.5751 22.5803 -5.31117
-10.722 22.5098 -5.28343
-10.2752 22.9328 -5.33553
-10.0504 23.154 -5.36667
-9.78968 22.985 -5.42767
-9.87102 23.1036 -5.40755
-9.53217 23.007 -5.46327
-9.70089 23.0797 -5.43903
-9.08726 23.1883 -5.52338
-9.29283 23.3018 -5.50449
-8.88918 23.142 -5.5383
-8.66813 22.9973 -5.55361
-8.44665 22.6527 -5.53777
-8.42284 22.9044 -5.57632
-8.45436 22.3514 -5.49488
-8.36694 22.4838 -5.52322
-8.39511 22.0729 -5.46649
-8.08618 21.8504 -5.48646
-8.14828 21.9827 -5.49488
-7.9268 21.6666 -5.48228
-7.70441 21.3647 -5.46441
-7.82062 21.5181 -5.47104
-7.43938 21.1422 -5.49075
-7.57039 21.3945 -5.51232
-7.17959 20.9521 -5.54303
-7.33587 20.9832 -5.48679
-7.15334 20.7905 -5.50586
-7.09834 20.6493 -5.48184
-6.92321 20.7049 -5.58704
-7.05896 20.7597 -5.53784
-6.69086 20.9449 -5.78842
-7.08279 20.9322 -5.582
-6.95933 21.1872 -5.72202
-6.62752 20.9529 -5.82854
-6.623 21.2784 -5.95092
-6.70208 21.2033 -5.87263
-6.54344 21.4579 -6.07248
-6.66376 21.5035 -5.99709
-6.45785 21.6877 -6.22485
-6.28134 21.943 -6.47977
-6.38019 21.8486 -6.3542
-5.96094 21.8194 -6.76853
-6.16745 21.9709 -6.60363
-5.60645 21.4703 -7.04402
-5.81389 21.8473 -6.93261
-5.09363 21.1368 -7.55268
-5.29993 21.4943 -7.40764
-5.08429 20.7239 -7.40791
-4.97227 20.9441 -7.64162
-4.84714 20.336 -7.56243
-4.85319 20.6898 -7.69917
-4.84669 20.5024 -7.62821
-4.72088 20.2373 -7.71539
-4.64653 19.8637 -7.72598
-4.65209 20.1618 -7.80227
-4.6402 20.0385 -7.7954
-4.58732 19.9476 -7.86786
-20.1991 15.1055 -15.1901
-20.1668 15.1885 -15.2943
-20.2364 15.1194 -15.1239
-20.3077 15.1123 -15.0627
-20.4751 15.1746 -14.9316
-20.502 15.1736 -14.8898
-20.5263 15.1757 -14.8549
-20.5427 15.2688 -14.8508
-20.527 15.2278 -14.8759
-20.5736 15.2979 -14.8028
-20.636 15.3495 -14.6727
-20.6053 15.3606 -14.7244
-20.6841 15.39 -14.5686
-20.7002 15.3948 -14.499
-20.711 15.4354 -14.4934
-20.7006 15.5097 -14.5072
-20.7021 15.4671 -14.5259
-20.6683 15.5862 -14.448
-20.6853 15.5506 -14.4726
-20.5782 15.7241 -14.4512
-20.6151 15.6716 -14.4265
-20.5622 15.7916 -14.4105
-20.4511 15.8239 -14.6357
-20.5271 15.7896 -14.4957
-20.4086 16.011 -14.7089
-20.3992 15.8913 -14.722
-20.4538 16.4195 -14.6582
-20.4229 16.1033 -14.6849
-20.4903 16.625 -14.6022
-20.7074 17.045 -14.2018
-20.4108 17.0647 -14.7881
-20.5396 17.1142 -14.5251
-20.8166 17.2222 -13.9969
-21.0257 17.2898 -13.5932
-20.9034 17.4707 -13.8461
-21.1699 17.2582 -13.3065
-21.3091 17.0337 -13.0173
-21.582 16.7259 -12.4518
-21.4413 17.0604 -12.7533
-21.7131 16.5334 -12.1852
-21.967 16.3943 -11.6722
-21.8138 16.4324 -11.9783
-22.2609 16.1426 -11.074
-22.1619 16.5063 -11.2942
-22.3066 15.9447 -10.9671
-22.341 15.6941 -10.8982
-22.3818 15.9078 -10.8195
-22.3898 15.6847 -10.8171
-22.5145 15.4927 -10.6505
-22.5524 14.972 -10.6269
-22.5679 15.2879 -10.5721
-22.5375 14.7766 -10.6642
-22.5508 14.593 -10.6546
-22.6149 14.4711 -10.5635
-22.5406 14.3039 -10.6869
-22.6244 14.3655 -10.5485
-22.5105 14.1935 -10.7103
-22.5551 14.1496 -10.6085
-22.7024 14.2009 -10.3068
-22.6676 14.229 -10.4007
-22.8258 14.4271 -10.138
-22.6974 14.3321 -10.3916
-22.774 14.4271 -10.2535
-22.9549 14.3882 -9.89455
-22.9299 14.4184 -9.95122
-23.0598 14.3894 -9.69116
-23.1912 14.2088 -9.3941
-23.1708 14.3143 -9.4658
-23.1635 14.0918 -9.40126
-23.2073 14.1483 -9.32534
-23.3069 14.292 -9.04388
-23.2559 14.3349 -9.27624
-23.3221 14.1911 -8.93004
-23.318 14.2334 -8.96927
-23.3196 14.1357 -8.88737
